0.078523 -0.485640 0.719163 -0.838976 -0.377912 -0.278193 
-0.244077 -0.698972 0.128710 -0.137982 -0.734694 0.602692 
0.317413 -0.106497 0.800879 0.913562 0.057865 0.393883 
0.357903 -0.005013 0.266614 0.928101 0.359751 0.080430 
-0.042300 -0.441021 0.110356 -0.090237 -0.981321 -0.169617 
0.172552 -0.511258 0.639514 -0.226807 -0.368762 -0.856127 
-0.282546 0.242658 -0.316888 -0.793819 -0.508982 0.320717 
0.286812 -0.433598 0.901306 0.531309 0.065997 0.814906 
-0.338216 -0.656829 0.075655 -0.794605 -0.502825 0.276027 
0.310076 0.596752 -0.257895 0.324099 -0.839430 -0.393119 
-0.305140 -0.634185 0.729983 -0.855003 -0.346652 -0.371479 
-0.218723 -0.432985 0.260928 -0.188793 -0.957083 0.116431 
-0.333944 -0.222626 0.744583 -0.977993 0.011852 0.201073 
0.105379 -0.555587 -0.017823 -0.953782 -0.078510 -0.254476 
0.379050 -0.507570 -0.034211 0.957373 -0.084963 -0.267359 
-0.019221 0.216668 0.721614 -0.058921 0.973183 0.206529 
-0.320874 -0.159390 0.794462 -0.930042 0.008605 0.360840 
-0.145137 0.899265 -0.224152 0.243031 0.272373 0.924526 
-0.270446 0.003936 0.831840 -0.764071 0.421555 0.479568 
0.132157 0.603456 -0.040302 0.499395 0.540479 0.676585 
0.357868 -0.244035 0.540731 0.992842 -0.072353 0.093689 
-0.128498 0.423695 -0.611829 -0.099223 0.577932 -0.809459 
-0.265080 0.288204 -0.214715 -0.797469 -0.462113 0.380964 
-0.216299 -0.501337 0.629056 -0.065551 -0.410085 -0.883435 
-0.235869 -0.699319 0.866893 -0.349219 -0.709041 0.548524 
-0.108093 -0.517938 0.420310 -0.256419 -0.963228 -0.052289 
0.379414 -0.312415 0.013323 0.979692 0.066346 -0.126470 
-0.168869 0.272778 0.040813 -0.732191 0.636018 -0.168759 
0.035892 0.112652 -0.346043 0.055719 -0.981014 0.182305 
-0.347855 -0.300773 0.588831 -0.985605 -0.139594 0.082230 
-0.361277 -0.230381 0.513743 -0.994070 -0.055556 0.092974 
-0.199558 0.872797 -0.233426 -0.545345 -0.048764 0.823717 
-0.247115 0.070914 0.790765 -0.725823 0.589757 0.347799 
-0.057624 0.804189 -0.398605 -0.134668 0.842948 -0.499105 
-0.078957 0.003970 -0.211978 -0.467073 -0.056480 -0.879119 
-0.106808 0.872417 -0.258989 0.891343 0.411449 -0.016306 
-0.275674 0.547813 -0.405653 -0.966707 0.216500 -0.130110 
0.324165 0.729901 -0.313046 0.080374 0.679002 -0.685017 
0.236477 0.237023 0.217200 0.800617 0.589246 0.074888 
0.221790 -0.441675 0.227542 -0.022079 -0.819563 0.461717 
0.034797 0.349694 0.038504 0.106683 0.302964 0.921840 
0.137505 -0.440673 0.918183 -0.278380 -0.044355 0.946805 
-0.302187 -0.410121 0.428632 -0.496254 -0.863526 -0.013222 
-0.179506 -0.416573 0.921909 0.056145 0.015350 0.984793 
-0.227125 -0.375628 -0.115503 0.091573 -0.013353 -0.983781 
-0.129568 0.420871 0.029190 -0.394462 -0.152596 0.895541 
0.312691 -0.397621 0.265187 0.567288 -0.801703 0.143983 
0.279551 0.143252 0.085123 0.836498 0.483205 -0.255470 
0.363115 -0.008927 0.204791 0.939004 0.340521 0.010851 
0.074656 0.706811 -0.091396 0.503673 0.585262 0.632486 
-0.116981 -0.541048 -0.047864 0.856472 -0.067300 -0.463929 
-0.113808 -0.512950 0.469634 -0.272525 -0.949781 0.143994 
0.106843 -0.511743 0.673771 -0.640467 -0.394126 -0.579119 
0.167639 0.780160 -0.208525 0.422758 0.657357 0.621724 
0.206039 0.744093 -0.383850 0.708862 0.650655 -0.263648 
-0.108708 -0.486122 0.563679 -0.272006 -0.890992 0.362796 
0.168389 -0.609028 -0.090928 -0.523293 -0.215169 -0.803921 
-0.322831 -0.270984 -0.092483 -0.595826 0.074034 -0.773470 
0.016185 0.238261 -0.651612 0.007246 -0.408452 -0.905600 
0.378704 -0.191501 0.089080 0.990453 0.065302 -0.111775 
-0.233901 -0.272970 -0.122945 -0.123985 -0.126966 -0.982725 
-0.192989 0.156917 -0.051539 -0.800181 0.363524 -0.465940 
-0.017190 -0.057246 1.039101 -0.144339 0.540278 0.817523 
0.340820 -0.191640 -0.055333 0.821500 0.155046 -0.521637 
-0.173304 -0.160668 -0.164757 -0.385417 -0.177042 -0.900955 
-0.264176 0.035522 -0.058389 -0.683237 0.420052 -0.594875 
0.041095 0.425103 -0.614846 0.019057 0.571372 -0.820234 
0.228046 0.637392 -0.126795 0.241956 0.379679 0.875910 
0.273973 0.402240 -0.141982 0.921346 -0.076326 0.367449 
0.078047 -0.136614 -0.202534 0.244067 -0.155451 -0.950189 
-0.155518 0.729706 -0.163767 -0.276647 0.528902 0.792081 
0.230717 0.069478 -0.070408 0.662036 0.421939 -0.617732 
0.169256 0.902581 -0.318780 -0.305544 0.384908 -0.850696 
0.030249 -0.062976 -0.223588 0.161587 -0.126693 -0.977392 
0.356011 -0.095680 0.585756 0.990834 0.117739 0.059686 
-0.173828 0.748074 -0.181589 -0.200085 0.556281 0.803067 
0.219281 0.293850 -0.123895 0.757539 -0.466542 0.453391 
-0.237993 -0.438625 0.231303 -0.093684 -0.814479 0.473572 
0.285366 0.504274 -0.416241 0.955429 0.260299 -0.133853 
-0.264646 0.032244 0.813398 -0.758970 0.499341 0.413151 
-0.201537 -0.446090 0.208694 0.163677 -0.785289 0.481290 
0.378994 -0.462992 0.079065 0.971933 -0.074755 0.195043 
0.132265 -0.566520 -0.068411 -0.746731 -0.126518 -0.635515 
-0.207852 -0.080482 -0.149302 -0.500981 0.120500 -0.853718 
-0.044521 0.804408 -0.181230 -0.219385 0.859096 0.458473 
-0.373547 -0.514589 0.086343 -0.951022 -0.124498 0.262594 
-0.208569 0.523076 -0.528249 -0.380420 0.410895 -0.798674 
0.339124 -0.411905 0.184770 0.734822 -0.307156 0.504264 
-0.187325 -0.287894 -0.121253 0.001861 -0.268206 -0.956974 
0.303692 -0.444729 -0.116015 0.299266 0.023366 -0.951504 
0.227264 0.054248 0.844258 0.647811 0.541357 0.531503 
-0.134499 -0.001876 0.949041 -0.396386 0.431936 0.809832 
0.279300 -0.413012 0.293175 0.370624 -0.916714 0.056917 
0.383890 -0.511887 0.031602 0.992615 -0.096752 0.047757 
-0.229372 0.129598 0.665733 -0.696856 0.709996 0.095070 
0.376639 -0.056850 0.168294 0.973851 0.213162 -0.059462 
-0.209954 -0.442967 0.323446 -0.525804 -0.824159 -0.188264 
-0.169634 0.272763 0.317870 -0.483974 0.802417 0.331721 
-0.204939 0.132464 0.750255 -0.630536 0.726943 0.260737 
0.373138 -0.318100 -0.033677 0.940713 0.092760 -0.320267 
0.261522 0.494729 -0.138277 0.918640 0.175882 0.335861 
-0.199732 -0.589957 -0.108693 0.322936 -0.169076 -0.916055 
-0.251476 0.125652 0.003838 -0.734063 0.489719 -0.470081 
-0.088968 -0.579626 0.866283 0.836311 -0.165829 0.472670 
0.181523 0.256946 0.333295 0.561023 0.742601 0.350010 
0.348392 -0.121933 0.682767 0.987041 0.031517 0.146258 
0.065934 0.770883 -0.145116 0.376291 0.671197 0.637176 
0.110313 -0.510463 0.483629 0.264003 -0.943188 0.183354 
0.271979 -0.242872 -0.117813 0.365521 -0.033050 -0.925345 
0.210942 0.939168 -0.267843 0.663129 0.657257 0.152312 
0.052705 -0.416522 0.041173 0.147466 -0.896055 -0.415888 
-0.252198 0.121955 0.471316 -0.752154 0.644498 0.130555 
-0.022196 -0.079248 1.042469 -0.426855 -0.291628 0.832671 
-0.223260 0.336585 -0.088868 -0.757928 -0.402540 0.512284 
-0.059057 0.278210 0.367883 -0.060477 0.914628 0.396973 
-0.431842 0.673834 -0.255114 -0.752148 -0.435700 -0.465160 
0.055163 0.161236 0.842780 0.168420 0.819462 0.542819 
-0.060084 0.798402 -0.179429 -0.255055 0.816767 0.515925 
0.178269 -0.057285 0.943949 0.503309 0.097813 0.857137 
0.321919 -0.529114 0.865090 0.852681 -0.091615 0.462128 
-0.079054 0.213654 0.679931 -0.238509 0.961784 0.114262 
-0.078855 0.611297 -0.516078 -0.070797 0.382413 -0.920774 
0.376434 -0.467270 -0.043368 0.926596 -0.030635 -0.335387 
0.265438 0.148072 0.341963 0.822598 0.528234 0.208387 
-0.342027 -0.382808 0.770768 -0.998329 0.014972 0.016554 
0.268569 -0.620323 0.676484 0.565335 -0.317847 -0.734165 
0.164449 -0.464162 0.549404 0.521072 -0.776808 0.290136 
-0.207745 0.901609 -0.316250 -0.550611 0.199146 -0.778144 
0.148691 0.481600 0.020801 0.496761 0.182745 0.838576 
-0.449081 0.660623 -0.197175 -0.812100 -0.547406 -0.031249 
0.274545 0.563575 -0.378907 0.976480 0.171034 -0.117593 
-0.262290 0.574523 -0.443912 -0.906549 0.243484 -0.300441 
0.152579 0.119357 -0.145349 0.877517 -0.062904 -0.456139 
0.018599 -0.336251 -0.084848 0.106385 -0.747164 -0.652709 
0.281272 -0.447524 0.208676 0.303376 -0.527776 0.758026 
0.434022 0.729049 -0.173882 0.350007 0.627467 0.625435 
-0.089771 0.237587 0.452408 -0.197174 0.918165 0.333705 
-0.041785 0.466720 -0.586233 -0.021650 0.534204 -0.843589 
0.121614 0.641340 -0.068114 0.500445 0.574259 0.647129 
-0.090851 -0.615949 0.737639 0.892780 -0.231611 -0.362204 
-0.340181 -0.369814 0.730773 -0.996835 -0.045594 -0.048621 
0.207533 -0.178991 -0.146489 0.378079 -0.160966 -0.906903 
-0.281669 0.495909 -0.221324 -0.967936 0.136592 0.175140 
0.268362 0.197609 -0.362812 0.711408 -0.633059 0.293176 
-0.086539 -0.648605 0.802899 0.928201 -0.338191 0.045831 
-0.342188 -0.448504 0.776232 -0.995768 -0.031382 -0.034023 
0.284386 0.380539 -0.180023 0.926048 -0.124790 0.330973 
0.054282 0.067269 0.936337 0.185766 0.563227 0.802958 
0.313435 0.619619 -0.295359 0.295418 -0.741047 -0.583197 
-0.335109 -0.378390 0.267666 -0.722537 -0.661426 0.108235 
0.263837 0.205179 -0.339395 0.708032 -0.623867 0.316906 
0.151324 0.298488 0.101967 0.456515 0.865513 -0.122173 
0.246603 0.333576 -0.632227 0.471791 0.271382 -0.824593 
0.455670 0.726755 -0.240030 0.841299 0.307762 -0.378046 
-0.104972 0.448899 -0.594821 -0.077543 0.563941 -0.821058 
-0.174433 0.218624 -0.057556 -0.969009 0.122937 -0.105198 
0.099650 -0.464608 0.011087 -0.965280 -0.142925 -0.087765 
-0.317795 0.343846 -0.317047 -0.974679 -0.058994 0.186360 
-0.070663 0.220068 0.593449 -0.200519 0.978590 0.035894 
-0.380273 0.633909 -0.278812 -0.508627 -0.685664 -0.514418 
-0.261366 0.483943 -0.130438 -0.914260 0.178915 0.347874 
-0.283339 0.072129 0.616461 -0.802230 0.594060 0.052775 
0.339205 -0.379205 0.390779 0.786519 -0.616486 -0.000811 
-0.142792 -0.649662 0.683488 0.540237 -0.334153 -0.752221 
0.264888 0.184871 0.244998 0.858317 0.495536 0.128391 
-0.069492 -0.526168 0.778213 0.978351 -0.116355 -0.104992 
-0.247289 -0.149761 -0.129618 -0.501626 -0.004603 -0.858497 
0.108739 -0.482006 -0.035598 -0.910003 -0.063078 -0.358412 
-0.354838 -0.315683 0.493968 -0.976830 -0.188906 0.095789 
0.300685 -0.584114 0.167885 0.492510 -0.257440 0.807090 
-0.264535 0.190175 0.223919 -0.862823 0.493915 0.091601 
-0.178829 0.203555 -0.047858 -0.932013 0.241679 -0.256443 
-0.320615 -0.389701 0.864227 -0.816616 0.087954 0.533600 
0.044367 -0.512403 0.527939 0.111746 -0.946696 0.299597 
-0.226597 0.888726 -0.280208 -0.979421 -0.067630 -0.048622 
0.299446 -0.531160 0.896219 0.662964 -0.075257 0.717757 
-0.285724 0.567892 -0.160092 -0.530339 -0.755590 0.316306 
-0.243536 0.015919 0.859318 -0.678542 0.446855 0.578961 
-0.354124 -0.193743 -0.031990 -0.901164 0.163033 -0.386394 
0.339151 -0.268444 0.723773 0.992891 0.030002 0.111711 
0.281323 0.278018 -0.612257 0.657043 -0.129027 -0.708651 
0.132558 0.540433 -0.540906 0.129248 0.422786 -0.895751 
-0.217466 0.199373 -0.606763 -0.280104 -0.636019 -0.711813 
0.336336 0.049099 0.143506 0.906582 0.412542 -0.078035 
0.256564 0.128492 0.428336 0.774606 0.603279 0.183502 
-0.037081 0.146875 -0.572793 -0.017697 -0.824392 -0.561456 
-0.076534 -0.581782 0.770148 0.962286 -0.151958 -0.162183 
0.216714 0.030149 0.875991 0.601734 0.474601 0.638980 
-0.261294 -0.045161 -0.104168 -0.637023 0.243000 -0.728280 
0.169672 -0.491886 0.469274 0.460600 -0.870272 0.159755 
-0.092224 0.122072 0.879617 -0.277952 0.697510 0.658267 
0.044041 -0.080844 1.021686 0.615036 -0.622523 0.455333 
0.118647 0.794994 -0.390197 0.264298 0.854724 -0.424756 
-0.341943 0.040785 0.177069 -0.911074 0.409897 -0.020916 
-0.245821 0.502934 -0.100165 -0.868291 0.219730 0.435046 
0.343166 -0.123964 0.715510 0.979637 0.024660 0.192319 
0.309662 0.213526 -0.477773 0.852777 -0.500587 0.020799 
0.276884 0.156673 0.265277 0.863358 0.481561 0.145975 
-0.359222 -0.028741 0.336056 -0.938821 0.322271 0.111480 
-0.135898 -0.633346 0.899233 0.503294 -0.306116 0.779789 
0.291236 0.325619 -0.234548 0.890884 -0.294392 0.330101 
-0.339319 -0.450306 0.171275 -0.725541 -0.214523 0.597359 
-0.357356 -0.376965 -0.073432 -0.774051 0.058521 -0.597455 
0.044176 -0.169777 -0.201933 0.110229 -0.292709 -0.947193 
-0.171415 0.018527 -0.147220 -0.593826 0.211821 -0.769130 
-0.319104 -0.393731 0.258644 -0.609867 -0.767173 0.169083 
0.402653 0.621190 -0.217048 0.580397 -0.774368 -0.207175 
0.298656 -0.474993 0.897366 0.625103 0.022148 0.750996 
-0.055734 0.180767 -0.613378 -0.026184 -0.685613 -0.725606 
0.069029 -0.152993 0.973866 0.169710 -0.157309 0.972441 
0.357392 -0.335444 -0.067258 0.791630 0.084888 -0.567837 
0.222788 0.464290 -0.555330 0.442271 0.502362 -0.705054 
-0.102491 -0.452986 0.218785 -0.198517 -0.938029 -0.275779 
0.195986 0.228818 -0.633471 0.225072 -0.482954 -0.840586 
0.381411 -0.388447 0.062999 0.984296 -0.014773 0.096183 
-0.302038 -0.407674 0.582080 -0.683126 -0.689406 -0.143470 
-0.305538 -0.165994 0.828732 -0.880224 0.023854 0.466911 
0.244506 -0.016559 0.879415 0.669988 0.347506 0.652836 
0.168862 -0.518439 0.163982 -0.581827 -0.111961 0.777834 
-0.321965 -0.433069 0.866819 -0.822127 0.041776 0.523388 
-0.125196 0.166807 0.793522 -0.378171 0.832957 0.399331 
-0.072936 0.518267 -0.556078 -0.051507 0.449997 -0.890588 
-0.298056 0.434937 -0.243893 -0.974997 0.145427 0.163376 
0.134502 -0.463851 0.600614 0.189497 -0.932114 0.063058 
0.319871 -0.459953 0.679986 0.880638 -0.237316 -0.372662 
0.202148 -0.124896 0.930517 0.497961 -0.019047 0.866069 
-0.335536 -0.480713 0.742740 -0.967854 -0.088928 -0.192395 
0.033145 -0.315680 0.916372 -0.134347 -0.569106 0.803597 
0.266716 0.560870 -0.437868 0.923977 0.235667 -0.256753 
0.150590 0.521939 0.002058 0.524613 0.366759 0.755730 
-0.030466 0.426858 -0.613620 -0.015029 0.569914 -0.821315 
0.298448 -0.031869 0.812086 0.850643 0.310823 0.414975 
-0.062715 0.336643 0.041924 -0.230351 0.675444 0.643358 
0.245720 0.187628 0.322417 0.807418 0.538679 0.239814 
-0.033234 0.798814 -0.164283 -0.241476 0.840251 0.481133 
0.301123 0.063200 0.022603 0.812668 0.447095 -0.370472 
0.268765 0.172021 0.264901 0.856442 0.492720 0.152194 
0.336358 -0.216134 0.734225 0.980839 -0.004509 0.188329 
-0.314174 -0.400321 0.380798 -0.555857 -0.828042 -0.048085 
-0.013027 -0.416649 0.024050 -0.077948 -0.878891 -0.458650 
-0.321760 -0.002213 -0.001324 -0.844129 0.340033 -0.403968 
-0.200273 0.854388 -0.235359 -0.593283 -0.100238 0.788149 
-0.245545 0.204511 0.098573 -0.788431 0.551080 -0.267823 
0.289198 -0.702131 -0.035777 0.453846 -0.788418 -0.403132 
0.273974 -0.449975 0.621819 0.512960 -0.576027 -0.605289 
0.271746 0.760865 -0.220812 -0.010848 0.986235 0.149223 
0.332392 -0.439162 0.846950 0.915636 0.023821 0.357372 
0.056353 0.011142 0.972749 0.226956 0.550641 0.802792 
-0.362867 -0.609733 0.058626 -0.922025 -0.298625 0.186578 
-0.380334 -0.460807 -0.034232 -0.959015 -0.023345 -0.271388 
0.090290 -0.642968 0.761630 -0.910843 -0.305557 -0.227380 
0.210789 -0.358256 0.921070 0.144096 0.017022 0.987595 
0.300312 -0.636646 -0.088844 0.464354 -0.427555 -0.744073 
0.217931 0.857131 -0.294628 0.921590 -0.228315 -0.299138 
-0.131439 -0.509285 0.122777 0.831858 -0.056285 0.519870 
0.148659 0.137018 -0.165406 0.884164 -0.294714 -0.316572 
0.106026 0.672946 -0.487890 0.114557 0.416668 -0.900866 
-0.432299 0.715859 -0.274583 -0.717448 0.086634 -0.628915 
-0.338631 -0.434010 0.751940 -0.981620 -0.045972 -0.112734 
-0.370972 -0.488422 -0.053319 -0.883380 -0.056856 -0.409344 
-0.038488 0.785541 -0.426173 -0.081813 0.720571 -0.673482 
0.358908 -0.192441 0.564445 0.995297 -0.042967 0.086058 
0.319704 -0.413484 0.660296 0.886392 -0.310070 -0.311905 
-0.108337 0.749966 -0.447139 -0.161003 0.590910 -0.788904 
-0.343624 -0.041990 0.610521 -0.953943 0.286865 0.057320 
-0.209603 -0.020729 -0.134120 -0.550674 0.253089 -0.794661 
0.377512 -0.305702 0.151039 0.987188 -0.127992 0.064038 
-0.004970 0.654152 -0.013747 -0.036387 0.544247 0.829553 
0.358307 -0.148482 0.586659 0.996539 0.004790 0.077920 
-0.341115 -0.670376 0.037259 -0.804346 -0.571197 0.055912 
0.391739 0.683373 -0.146213 0.096388 0.191412 0.970847 
-0.189019 0.180556 -0.595380 -0.213114 -0.714686 -0.653145 
-0.296068 0.015707 0.761042 -0.842483 0.463278 0.267586 
-0.116352 -0.666567 0.862192 0.695269 -0.472878 0.512990 
0.031362 -0.283851 0.935850 -0.014950 -0.481397 0.871901 
0.062352 0.479301 0.053157 0.197169 0.100443 0.966534 
-0.294758 -0.500292 0.899558 -0.608038 -0.019297 0.759878 
0.319197 0.050604 0.365552 0.869812 0.474771 0.130543 
-0.187937 0.221524 -0.153606 -0.820814 -0.488987 0.268037 
-0.113424 -0.614333 0.071471 0.931136 -0.183189 0.275889 
0.124718 0.837619 -0.220515 -0.217613 0.152690 0.945564 
-0.280789 0.423875 -0.537231 -0.765285 0.417248 -0.469613 
-0.143441 -0.549406 0.919385 0.358697 -0.068164 0.918619 
0.083701 0.107016 -0.472145 0.069896 -0.976657 -0.161919 
0.362844 -0.399378 0.158014 0.909247 -0.243360 0.315079 
-0.169650 -0.590778 0.158807 0.555467 -0.143194 0.793793 
0.341879 0.588226 -0.210588 0.348131 -0.914118 -0.113993 
0.109226 -0.560027 0.072302 -0.951069 -0.055893 0.263421 
-0.274279 0.038425 0.783048 -0.788699 0.518225 0.322745 
-0.128205 -0.476290 0.647683 0.394456 -0.695885 -0.536950 
-0.026140 -0.510506 0.536866 -0.065686 -0.944355 0.315388 
-0.245283 0.232222 -0.255823 -0.721870 -0.589153 0.357889 
0.146595 0.463459 0.023205 0.480631 0.071744 0.856068 
-0.240209 0.750921 -0.278027 -0.123411 0.943014 -0.292586 
-0.364712 -0.603776 -0.026706 -0.911050 -0.302302 -0.268698 
0.287775 0.419993 -0.190315 0.955439 0.056697 0.264870 
-0.203427 -0.679422 0.676558 -0.022931 -0.555928 -0.801083 
0.173015 0.117759 -0.434498 0.280146 -0.955448 0.064856 
0.041635 -0.339381 0.898864 -0.279445 -0.600769 0.736568 
0.229937 -0.455108 0.597047 0.204799 -0.785955 -0.519908 
0.152066 -0.513594 -0.089436 -0.588214 -0.045160 -0.779602 
0.136774 0.194822 0.667467 0.419850 0.901125 0.093426 
-0.338991 -0.417250 0.744816 -0.985948 -0.051467 -0.107260 
-0.375501 -0.124063 0.368002 -0.988956 0.092320 0.110020 
-0.017427 -0.492770 0.583601 -0.043685 -0.925783 0.372099 
-0.156373 -0.564152 -0.089045 0.584142 -0.120522 -0.775436 
-0.339535 -0.343986 0.691332 -0.993463 -0.088861 -0.032166 
0.210861 0.148648 0.640602 0.645347 0.759792 0.060362 
-0.020810 -0.465810 0.650163 -0.033498 -0.932929 0.357823 
0.348916 -0.155521 0.677584 0.989516 -0.023798 0.139512 
0.174937 0.225170 -0.040871 0.940870 0.220661 -0.146704 
-0.282549 -0.010490 0.824865 -0.799971 0.382799 0.454872 
0.068253 -0.496608 0.833011 -0.955841 -0.114842 0.215214 
0.100518 0.221378 0.493815 0.262396 0.937851 0.218473 
0.062082 0.423975 0.049703 0.163203 -0.158975 0.969194 
-0.037627 0.328081 0.082701 -0.077128 0.983344 0.141659 
-0.377927 -0.096185 0.318171 -0.982541 0.149108 0.101052 
-0.240235 0.669323 -0.425703 -0.863249 0.398668 -0.294008 
-0.344278 -0.531463 -0.091963 -0.675260 -0.115025 -0.709039 
0.376844 -0.302112 0.175098 0.984621 -0.157224 0.061297 
0.075097 -0.545204 0.850957 -0.935742 -0.126071 0.326149 
0.263985 0.182361 -0.388045 0.683589 -0.682102 0.246050 
-0.275158 -0.544383 0.659341 -0.533621 -0.233660 -0.785827 
-0.268088 -0.547031 -0.118897 -0.124556 -0.102167 -0.958464 
-0.033736 0.668491 -0.494968 -0.037043 0.401661 -0.913816 
0.250424 -0.718745 -0.016911 0.169213 -0.898346 -0.300881 
0.320701 -0.606816 0.763277 0.929407 -0.272612 -0.174103 
0.059842 -0.454674 0.802967 -0.959836 -0.241865 0.085221 
0.339262 0.035671 0.275087 0.901759 0.419727 0.097601 
-0.159056 0.137293 -0.128202 -0.912966 -0.024843 -0.386638 
-0.197645 -0.511562 0.634698 0.068425 -0.352796 -0.894150 
-0.318632 -0.548141 0.714080 -0.884819 -0.175264 -0.397802 
0.319560 0.355298 -0.333514 0.980108 0.012345 0.143979 
-0.281312 0.124140 0.334999 -0.838518 0.512463 0.181371 
0.151768 0.263257 0.358960 0.401252 0.817442 0.407138 
-0.377044 -0.275064 0.308586 -0.986424 -0.146554 0.055178 
0.233305 -0.703159 0.709937 0.340290 -0.725904 -0.534678 
0.071385 -0.323294 -0.089275 0.012274 -0.701399 -0.702881 
0.186312 -0.464554 -0.109011 -0.341089 -0.011586 -0.934755 
-0.352899 -0.114296 0.013183 -0.934143 0.146743 -0.313902 
0.356821 -0.011274 0.106107 0.933242 0.318597 -0.151711 
0.211524 0.250717 0.099216 0.724088 0.638084 -0.258836 
-0.263268 0.125271 0.023058 -0.758360 0.491800 -0.426012 
0.308873 -0.316872 -0.104750 0.423954 0.047868 -0.885419 
0.084569 -0.223977 0.956395 0.138229 -0.253637 0.956659 
0.187193 -0.653074 0.155131 -0.416500 -0.385817 0.799381 
-0.293767 0.052648 0.653597 -0.827678 0.551631 0.086647 
0.318097 0.721945 -0.166954 -0.025610 0.571374 0.806215 
0.220001 -0.708288 0.117554 -0.050850 -0.805369 0.520734 
-0.236072 -0.678690 0.892274 -0.343685 -0.567651 0.725664 
-0.180896 0.815470 -0.228437 -0.484973 0.028813 0.862089 
-0.359769 -0.316550 -0.058332 -0.826149 0.095337 -0.511044 
0.317965 0.030268 0.024284 0.842395 0.405943 -0.342521 
-0.058240 0.677318 -0.051207 -0.409674 0.568624 0.708001 
0.037754 0.237755 -0.651213 0.016902 -0.411962 -0.903809 
-0.226384 0.905212 -0.277647 -0.964597 0.119603 -0.000285 
-0.339128 -0.175156 -0.051656 -0.825404 0.162792 -0.514405 
-0.257716 -0.432497 0.565008 -0.370880 -0.888193 -0.210989 
-0.167938 -0.179383 0.943020 -0.343269 -0.087706 0.934056 
0.217374 0.864386 -0.251100 0.860531 -0.142533 0.479885 
0.169988 -0.158240 -0.167009 0.385642 -0.170608 -0.903066 
-0.191259 0.418108 -0.009106 -0.639682 -0.164916 0.738235 
0.099125 0.225524 -0.644104 0.057713 -0.479518 -0.871659 
0.378551 -0.524647 -0.034602 0.956553 -0.107462 -0.267838 
-0.224454 0.745817 -0.186384 -0.073312 0.685465 0.708458 
-0.166177 -0.683167 0.118364 0.569293 -0.561726 0.561541 
-0.323376 -0.680840 0.073199 -0.708154 -0.622323 0.265769 
0.225872 -0.380154 0.917809 0.188324 0.057566 0.968249 
0.262565 0.048103 -0.050647 0.688830 0.437188 -0.575586 
0.229964 0.109061 0.749699 0.696767 0.670726 0.247582 
-0.129568 -0.446794 0.154118 0.311688 -0.866566 0.200070 
-0.177729 0.089298 0.860075 -0.513591 0.616282 0.594570 
-0.330162 0.049280 0.097255 -0.891793 0.415888 -0.169265 
-0.232887 0.134648 0.537355 -0.699148 0.711039 0.065351 
0.143901 -0.474129 0.636376 -0.298235 -0.711066 -0.553653 
-0.149818 -0.261166 0.934988 -0.170388 -0.175139 0.964201 
-0.243444 -0.112512 -0.130588 -0.554532 0.060071 -0.824462 
0.186662 -0.190365 0.934740 0.383663 -0.061400 0.919180 
-0.321284 0.376912 -0.404896 -0.974545 0.193302 -0.005005 
-0.301525 0.107363 0.281806 -0.869701 0.474986 0.132130 
0.146446 0.467731 -0.577940 0.145907 0.536913 -0.827236 
-0.211962 0.250089 0.283216 -0.710573 0.656140 0.234214 
-0.169391 0.801738 -0.332353 -0.454176 0.034801 -0.853912 
-0.021906 -0.435533 0.727189 0.091786 -0.923481 0.367039 
0.263614 0.478693 -0.133194 0.920212 0.173291 0.337254 
-0.007314 -0.222555 -0.180910 -0.012901 -0.463965 -0.880999 
-0.243010 0.201211 0.300862 -0.808670 0.541434 0.226065 
-0.133335 0.094168 0.885593 -0.386918 0.617468 0.681327 
-0.298572 0.106432 0.303640 -0.861727 0.484132 0.151680 
-0.456951 0.731999 -0.184979 -0.574525 0.648909 0.438222 
-0.134718 -0.004667 -0.176526 -0.542880 0.109869 -0.829470 
-0.230453 -0.607795 0.655677 -0.216997 -0.259479 -0.913050 
-0.398378 0.611336 -0.191593 -0.543354 -0.833514 0.018585 
0.227387 -0.574322 -0.116535 -0.144128 -0.140631 -0.960873 
-0.004999 0.163422 -0.594356 -0.002386 -0.756205 -0.647182 
0.130275 -0.444343 0.193027 0.061892 -0.990031 -0.082790 
-0.207113 -0.063869 -0.145298 -0.507179 0.165534 -0.838037 
-0.169747 0.126095 -0.383837 -0.314659 -0.917971 0.216900 
0.274775 0.084246 0.593463 0.784201 0.617438 0.044936 
0.257115 0.070689 0.768305 0.754006 0.591316 0.282320 
0.264075 0.607931 -0.399098 0.960224 0.214069 -0.171175 
-0.162351 -0.273501 0.931967 -0.162332 -0.145061 0.974020 
0.280549 -0.579166 0.179179 0.316675 -0.227450 0.900802 
-0.157138 0.518978 -0.000975 -0.545580 0.358917 0.743970 
-0.131617 0.905664 -0.233963 0.614905 0.446004 0.641214 
0.208857 0.582839 -0.088925 0.585804 0.382085 0.702303 
-0.064876 0.256149 0.417383 -0.097064 0.917562 0.381870 
-0.255981 0.746632 -0.287987 -0.061232 0.919808 -0.381363 
0.290226 -0.213740 -0.108615 0.487316 0.039864 -0.863732 
-0.378204 -0.532599 -0.023787 -0.958584 -0.125089 -0.217975 
0.293298 0.427993 -0.501597 0.869053 0.371103 -0.310077 
-0.121803 -0.608941 -0.041084 0.844259 -0.206941 -0.461823 
-0.283440 -0.417906 0.481336 -0.426341 -0.900587 0.017200 
-0.376932 -0.202805 0.062610 -0.986840 0.084908 -0.130431 
0.316184 -0.600482 0.151131 0.631189 -0.299547 0.689728 
0.220525 -0.243116 0.917919 0.404693 -0.008981 0.910922 
0.376503 -0.248135 0.352572 0.992672 -0.081202 0.085225 
0.282091 -0.483766 0.907812 0.497156 0.016464 0.839391 
-0.380045 -0.263862 0.266946 -0.989481 -0.129783 0.031449 
0.374374 -0.448976 -0.048585 0.904763 -0.005456 -0.376869 
0.232028 0.218758 -0.252284 0.683439 -0.634922 0.357991 
-0.341206 -0.123033 0.726012 -0.976352 0.026738 0.208402 
0.302791 -0.495141 0.894503 0.669575 -0.014992 0.717475 
-0.263120 0.594106 -0.425832 -0.946575 0.242090 -0.203840 
0.299566 -0.632306 0.861539 0.781892 -0.366144 0.463292 
-0.288911 0.573885 -0.239734 -0.711488 -0.589899 -0.153553 
0.094514 -0.247303 -0.153373 0.192438 -0.538176 -0.817889 
-0.020141 0.265535 0.399077 -0.017471 0.920238 0.390538 
-0.126539 0.156174 0.811753 -0.380691 0.803371 0.450710 
-0.057987 0.221715 0.605965 -0.165339 0.984303 0.032002 
0.207003 0.351859 -0.642291 0.285968 0.369498 -0.875992 
-0.364943 -0.084554 0.413952 -0.977366 0.182198 0.098563 
-0.338648 -0.187227 0.729183 -0.978267 -0.035321 0.200702 
0.281979 0.088875 0.448770 0.806907 0.577134 0.116672 
-0.266034 0.359108 -0.145886 -0.859051 -0.289906 0.417112 
-0.113749 -0.638413 0.006082 0.914242 -0.296976 -0.152035 
0.168031 0.258243 -0.031425 0.962729 0.209774 0.066098 
-0.335826 -0.481625 0.843060 -0.947957 -0.026557 0.298475 
-0.092983 -0.643258 0.842588 0.863700 -0.349956 0.329921 
0.165579 -0.666100 0.900144 -0.277863 -0.479324 0.798902 
0.115055 0.494475 0.034777 0.382478 0.220115 0.893012 
0.303215 0.119810 0.202765 0.889918 0.452579 0.036823 
-0.347236 -0.281568 0.624992 -0.993224 -0.080290 0.079459 
-0.132515 -0.457181 0.132862 0.672130 -0.561980 0.344651 
-0.099708 0.566008 0.004833 -0.386574 0.459038 0.784665 
-0.265964 -0.686393 0.136162 -0.337489 -0.655956 0.636979 
-0.374591 -0.044867 0.208085 -0.963989 0.257942 0.005726 
0.283943 -0.255515 -0.113226 0.374000 -0.001476 -0.923727 
0.287288 0.587593 -0.138134 0.421420 -0.390634 0.809446 
0.376371 -0.363869 0.113088 0.973646 -0.094132 0.175680 
0.220917 0.453029 -0.035077 0.777719 0.069298 0.611435 
0.030028 0.673336 -0.033250 0.219846 0.571178 0.768408 
-0.298349 0.715393 -0.163584 0.025883 0.512228 0.854195 
-0.326063 0.250303 -0.495907 -0.950892 -0.275540 -0.063140 
0.383964 -0.190978 0.295349 0.997320 -0.025296 0.060812 
-0.005009 0.710698 -0.051891 -0.036670 0.628177 0.768061 
0.304663 0.414157 -0.473726 0.916472 0.327438 -0.199692 
0.289311 0.631443 -0.324112 0.591789 -0.469332 -0.621181 
-0.323041 0.251904 -0.445019 -0.934351 -0.308633 0.089606 
-0.347352 -0.364589 0.360494 -0.836190 -0.530966 -0.001203 
0.342750 -0.325399 0.604616 0.977568 -0.189948 0.055645 
0.002882 0.229589 -0.647857 0.001290 -0.452508 -0.886356 
0.263995 0.162753 -0.452596 0.632377 -0.761659 0.084716 
0.249375 -0.423622 0.282206 0.253867 -0.947632 0.089474 
-0.167657 -0.606249 -0.091229 0.526801 -0.206192 -0.804191 
-0.058788 0.534566 -0.549390 -0.041602 0.429104 -0.901093 
0.205769 -0.661530 0.156474 -0.231411 -0.460457 0.802370 
-0.103872 0.361722 0.024527 -0.346682 -0.121500 0.908626 
0.286746 0.099523 0.385339 0.830335 0.531545 0.164534 
-0.171221 0.034245 0.908093 -0.471445 0.480814 0.736574 
0.282265 0.070646 0.644944 0.802377 0.590804 0.076778 
0.052487 0.304987 0.298562 0.029475 0.959110 0.275187 
0.071274 0.523472 0.039618 0.261897 0.306268 0.906300 
0.338740 -0.345364 0.727652 0.994330 -0.028747 -0.022943 
0.136513 -0.673988 0.877927 -0.537601 -0.523229 0.636263 
-0.318307 -0.412059 -0.106843 -0.422436 0.047324 -0.877501 
-0.045322 0.380766 0.041422 -0.107441 -0.201976 0.972902 
0.133580 0.751023 -0.440100 0.221973 0.622480 -0.745196 
-0.358232 -0.627106 -0.000411 -0.885837 -0.388111 -0.131654 
-0.468104 0.700514 -0.192317 -0.955150 -0.096002 0.126194 
0.362409 0.594684 -0.177718 0.400615 -0.866442 0.250745 
-0.340408 -0.482838 0.804598 -0.983034 -0.045638 0.085671 
0.067771 0.113255 -0.254417 0.395348 -0.735779 -0.492181 
0.440533 0.730329 -0.258663 0.723529 0.396709 -0.500254 
-0.337364 -0.042478 0.682923 -0.948121 0.278886 0.131500 
-0.152333 -0.053190 0.957268 -0.436753 0.063394 0.893261 
-0.169201 -0.538172 0.647412 0.274223 -0.217137 -0.922270 
-0.028812 0.298170 0.321013 -0.010796 0.945775 0.322664 
0.145707 -0.178470 -0.172153 0.336022 -0.261498 -0.902337 
-0.077160 -0.596824 0.781861 0.964197 -0.183228 -0.106547 
0.184416 0.121715 -0.480241 0.268262 -0.950542 -0.132621 
-0.087145 0.774108 -0.429317 -0.149738 0.693803 -0.691540 
0.319423 -0.026859 0.747320 0.906161 0.332153 0.244749 
-0.077375 0.065466 -0.222099 -0.528999 -0.235499 -0.807657 
0.332282 -0.380406 0.482436 0.805057 -0.573858 0.075840 
-0.024720 -0.378851 -0.030705 -0.172162 -0.791238 -0.584723 
0.354764 -0.341434 0.428255 0.944354 -0.309316 0.073394 
-0.092481 0.127511 -0.537274 -0.060686 -0.901664 -0.426278 
-0.247373 0.221545 0.215842 -0.834707 0.542015 0.074324 
0.210228 0.589214 -0.501283 0.398074 0.364028 -0.833065 
0.111615 -0.643295 0.032390 -0.936644 -0.297052 0.022324 
0.358199 -0.105345 0.558240 0.992346 0.104264 0.052772 
-0.322890 0.015867 0.512001 -0.885892 0.458657 0.042618 
0.123972 -0.605637 0.899961 -0.567307 -0.223236 0.767645 
-0.101070 -0.461672 -0.018592 0.952034 -0.110746 -0.251725 
0.245588 0.470514 -0.538262 0.594314 0.456587 -0.632413 
-0.100497 -0.261160 -0.141139 -0.166226 -0.564320 -0.804738 
0.040464 0.768499 -0.124655 0.355964 0.711400 0.602139 
0.301002 0.747311 -0.287460 0.000625 0.879874 -0.452512 
0.339980 -0.021699 0.514133 0.931202 0.356311 0.042050 
0.120789 -0.653387 0.060833 -0.877812 -0.354485 0.193824 
0.435093 0.646692 -0.206440 0.739701 -0.638536 -0.120934 
0.282139 0.541889 -0.295294 0.991360 0.101386 -0.003227 
0.410313 0.707385 -0.295178 0.600679 0.049768 -0.725172 
-0.197727 0.243447 0.059317 -0.703003 0.623020 -0.308616 
0.172485 -0.219765 -0.146779 0.240577 -0.328862 -0.910465 
-0.343774 -0.114455 0.710791 -0.980016 0.044839 0.186044 
-0.147940 0.183427 0.709799 -0.458338 0.868591 0.174327 
0.277055 -0.395203 0.904286 0.460847 0.083859 0.867576 
-0.193440 -0.039211 -0.149232 -0.506006 0.208133 -0.835224 
-0.376835 -0.293182 0.006237 -0.971443 0.081051 -0.170142 
0.227867 -0.719570 0.834173 0.285140 -0.864123 0.316560 
0.133670 -0.041701 0.965388 0.405418 0.118033 0.904190 
-0.341994 -0.215902 0.698956 -0.987386 -0.035230 0.150382 
-0.359182 -0.343031 0.267293 -0.884272 -0.432007 0.033145 
0.157109 -0.505028 0.640843 -0.306469 -0.431049 -0.816831 
-0.189629 0.202910 -0.015811 -0.827284 0.413884 -0.370620 
-0.126656 -0.699917 0.744236 0.649603 -0.653306 -0.338032 
0.165686 0.127945 -0.370864 0.310449 -0.914459 0.242293 
0.319229 -0.429656 0.198134 0.591691 -0.417980 0.630799 
-0.057235 -0.004960 -0.221126 -0.359469 -0.084606 -0.922720 
-0.095201 0.016052 -0.203161 -0.527622 -0.033323 -0.844233 
0.176969 -0.312842 0.923219 0.106815 -0.083902 0.980758 
0.318061 -0.489214 0.877358 0.793876 -0.017409 0.575899 
-0.015664 0.653061 -0.502015 -0.016962 0.386329 -0.921371 
0.049706 0.231987 0.490022 0.108026 0.968914 0.213466 
0.189338 0.166603 0.618128 0.582212 0.809504 0.049876 
-0.120601 0.108084 -0.464407 -0.122231 -0.980778 -0.114719 
0.068885 -0.334260 -0.077656 -0.026631 -0.717839 -0.681812 
0.285745 -0.309927 0.885583 0.620081 0.133849 0.744482 
0.228237 -0.194774 0.912835 0.519462 0.001990 0.847561 
-0.170683 0.638828 -0.105474 -0.439839 0.519289 0.719958 
0.320833 -0.225020 0.797165 0.941905 0.073532 0.316470 
0.365121 -0.294636 0.419549 0.983055 -0.150117 0.092377 
-0.280827 0.531545 -0.388510 -0.968768 0.221122 -0.100544 
-0.205523 -0.435509 0.273249 -0.267911 -0.953016 -0.036155 
0.062685 -0.133507 0.977967 0.167224 -0.148037 0.974534 
0.039365 -0.291132 -0.128797 0.131364 -0.673199 -0.725554 
0.287487 0.119582 0.319293 0.848752 0.499181 0.171211 
0.051499 0.650189 -0.024492 0.344198 0.547484 0.758828 
-0.340541 -0.605395 -0.072898 -0.727577 -0.324475 -0.589070 
0.091740 -0.472663 0.890623 -0.692293 -0.083405 0.687141 
0.038655 0.567016 -0.535518 0.029569 0.388422 -0.920463 
-0.231019 0.520631 -0.517331 -0.534103 0.387183 -0.707365 
0.305872 -0.553174 0.173645 0.489330 -0.195479 0.827941 
-0.220269 -0.308359 0.918195 -0.264898 0.001655 0.960523 
-0.227503 0.203144 0.342312 -0.754285 0.587778 0.286154 
0.084336 0.822627 -0.241815 -0.402374 0.836813 0.247647 
-0.148195 0.784617 -0.201439 -0.343332 0.697866 0.625250 
0.223146 0.199113 -0.604069 0.304003 -0.638407 -0.696597 
-0.249903 -0.018146 -0.100922 -0.615732 0.308997 -0.715286 
0.313020 -0.297258 -0.101192 0.492728 0.047438 -0.845880 
0.375728 -0.553271 -0.009157 0.954291 -0.174841 -0.156326 
-0.077636 -0.119224 -0.206027 -0.262771 -0.115332 -0.955919 
0.216700 -0.391097 -0.113629 -0.152929 -0.009255 -0.972131 
-0.182506 0.179684 0.513421 -0.566009 0.809270 0.137379 
0.378212 0.744053 -0.186849 0.063013 0.813434 0.544413 
0.125340 -0.671922 0.713949 -0.693212 -0.457369 -0.544829 
-0.268369 0.095668 0.538583 -0.771869 0.632775 0.050562 
-0.074505 -0.440552 0.869435 0.778895 -0.183203 0.515304 
0.383053 -0.441705 -0.011983 0.973358 -0.004092 -0.169559 
-0.169140 0.181095 0.600492 -0.519797 0.852145 0.045003 
0.146968 -0.474547 0.309004 0.345943 -0.871653 -0.343064 
-0.110317 0.102868 0.889440 -0.329437 0.639639 0.690231 
0.373498 0.635158 -0.145246 0.233821 -0.254028 0.918621 
0.112865 0.314564 0.121451 0.261239 0.959820 -0.039402 
-0.208316 -0.394491 0.922302 -0.088893 0.041250 0.993342 
-0.304077 0.090264 0.071113 -0.854796 0.449818 -0.253657 
-0.129609 0.574512 -0.015552 -0.489174 0.491304 0.715982 
-0.267657 0.377363 -0.141439 -0.880017 -0.207210 0.402378 
0.376560 -0.280450 0.300406 0.984508 -0.161314 0.047368 
-0.137882 -0.236715 -0.146742 -0.213388 -0.445175 -0.862060 
0.379505 -0.259677 0.297341 0.990927 -0.114530 0.051819 
0.210845 0.639908 -0.125076 0.284530 0.436439 0.840895 
-0.301538 0.224290 -0.399488 -0.831659 -0.494088 0.227390 
-0.376684 -0.211629 0.371706 -0.994001 -0.034442 0.101850 
-0.208266 0.937616 -0.295586 -0.518157 0.684862 -0.494777 
-0.150745 -0.113570 0.954783 -0.363748 -0.073410 0.927951 
0.358571 -0.129521 0.021841 0.945362 0.140491 -0.283563 
-0.388821 0.748725 -0.278618 -0.196551 0.844493 -0.448235 
0.233128 -0.613288 -0.113891 -0.085295 -0.244447 -0.951424 
-0.129880 0.591212 -0.519265 -0.132690 0.384800 -0.912950 
-0.075086 -0.493795 0.729571 0.897830 -0.289653 -0.262352 
-0.162682 -0.546111 -0.095037 0.534444 -0.080212 -0.815049 
0.099038 0.108745 -0.390265 0.127447 -0.977250 0.159971 
-0.367987 -0.341102 0.176881 -0.943102 -0.233473 0.185213 
-0.170475 0.166637 0.724827 -0.530492 0.818230 0.210644 
-0.014200 0.107398 -0.368433 -0.016679 -0.982577 0.182933 
0.033447 0.114491 0.903165 0.109731 0.679828 0.722237 
-0.097972 0.479965 -0.575187 -0.076735 0.512739 -0.852448 
0.114403 -0.526741 0.093055 -0.930340 -0.040538 0.359402 
0.312178 -0.263895 0.837456 0.875418 0.162582 0.434367 
0.339728 -0.373794 -0.091583 0.622541 0.065769 -0.751457 
-0.299646 0.305449 -0.276990 -0.895114 -0.313677 0.301657 
-0.127895 -0.550119 0.116397 0.842542 -0.061457 0.505130 
-0.188602 -0.387255 0.922042 -0.022493 0.005121 0.992150 
0.234048 0.450507 -0.559553 0.487591 0.512217 -0.677216 
-0.152984 0.296505 0.090683 -0.492894 0.846232 -0.121589 
-0.124272 -0.202345 0.953269 -0.234059 -0.169110 0.956617 
0.123599 -0.653526 0.881140 -0.628402 -0.411352 0.650529 
-0.345388 -0.145001 -0.027835 -0.895561 0.183603 -0.395063 
-0.377822 -0.060308 0.226429 -0.973033 0.220608 0.024374 
-0.260692 0.200167 0.205693 -0.859596 0.504839 0.051964 
-0.263507 0.672035 -0.145805 -0.036011 0.364106 0.927725 
-0.184018 0.293525 -0.066305 -0.815148 -0.310889 0.482692 
-0.300705 -0.580940 0.694346 -0.775889 -0.232716 -0.560778 
-0.082693 -0.283149 -0.127227 -0.108113 -0.628307 -0.765860 
-0.174298 0.369562 -0.013375 -0.598066 -0.302908 0.731435 
0.288153 0.190715 -0.436165 0.758869 -0.623115 0.157717 
0.063838 0.242036 0.451322 0.120885 0.934765 0.327905 
-0.335640 -0.307177 0.782963 -0.980118 0.102544 0.156332 
0.289005 -0.424895 0.603590 0.609785 -0.688757 -0.292356 
0.357512 -0.005660 0.122673 0.931659 0.339217 -0.119579 
0.163244 0.590300 -0.055985 0.553163 0.487811 0.667527 
-0.132363 -0.677564 -0.008635 0.773313 -0.527394 -0.288882 
-0.105141 -0.509893 0.492222 -0.251165 -0.941556 0.207376 
0.178859 0.221033 -0.024170 0.893824 0.346915 -0.251766 
0.264936 -0.700500 0.740626 0.594866 -0.707749 -0.319664 
0.112674 -0.361302 -0.072368 -0.518967 -0.375432 -0.755929 
-0.357783 -0.164402 0.585336 -0.995641 -0.014804 0.082031 
0.406617 0.646524 -0.261134 0.626148 -0.616569 -0.454596 
-0.321167 -0.544558 0.864563 -0.854763 -0.116212 0.454210 
0.046826 0.223174 0.618313 0.133859 0.989008 0.037852 
0.180886 0.277569 0.085539 0.631358 0.741292 -0.213619 
0.297424 0.232542 -0.373349 0.828545 -0.486963 0.257016 
0.140176 -0.498317 -0.081678 -0.660094 -0.048855 -0.729326 
-0.357909 -0.545436 0.115293 -0.866293 -0.172255 0.434723 
-0.320370 -0.600670 0.755306 -0.923837 -0.258208 -0.219201 
-0.193392 0.182351 -0.251854 -0.616145 -0.740914 0.264378 
0.461365 0.729010 -0.221790 0.836198 0.402116 -0.170837 
-0.197012 0.685368 -0.148714 -0.179652 0.492134 0.844934 
0.236475 -0.704890 0.122422 0.082416 -0.781997 0.553697 
-0.302766 0.036292 0.673813 -0.849279 0.515138 0.108718 
-0.283212 -0.718394 0.042989 -0.423074 -0.884422 0.064572 
0.116471 -0.248557 -0.146825 0.188129 -0.513243 -0.836801 
-0.076015 0.822599 -0.305998 -0.240886 0.969745 -0.033310 
-0.130020 0.723067 -0.149986 -0.390453 0.535098 0.745752 
-0.181151 0.121397 0.814615 -0.543314 0.708303 0.444396 
0.205566 -0.435352 0.266385 0.225011 -0.961534 0.012257 
0.340784 -0.303898 0.704653 0.997452 -0.019863 0.047461 
-0.136144 0.183677 0.734313 -0.419023 0.873396 0.239566 
0.114009 -0.641435 0.049330 -0.925451 -0.281464 0.129158 
-0.316907 -0.638867 0.787707 -0.923972 -0.365430 -0.029189 
-0.021890 0.238377 -0.651618 -0.009800 -0.408095 -0.905692 
0.318888 0.023369 0.517395 0.876141 0.478099 0.042261 
0.262528 0.166747 -0.519332 0.561194 -0.776326 -0.227892 
0.055378 -0.046899 -0.219460 0.290714 -0.084360 -0.952011 
-0.263329 0.237152 -0.282569 -0.751585 -0.557918 0.349131 
0.282995 0.434479 -0.521653 0.801053 0.393334 -0.427680 
0.093877 0.688918 -0.090507 0.519022 0.583372 0.624501 
-0.289573 0.133879 0.265885 -0.869085 0.475200 0.134984 
0.115302 -0.449593 0.101049 -0.790631 -0.484664 0.233720 
0.228650 0.239992 0.129010 0.760248 0.614739 -0.188957 
-0.138133 0.138231 -0.186029 -0.824852 -0.444165 -0.316122 
-0.180470 -0.520921 0.171903 0.498028 -0.129944 0.834386 
-0.195762 0.106206 -0.081509 -0.717016 0.350198 -0.590240 
-0.347011 -0.174833 -0.037180 -0.873972 0.168373 -0.431895 
-0.129695 0.181498 0.752888 -0.397768 0.869414 0.288819 
0.112653 -0.682665 0.845493 -0.725567 -0.557514 0.399227 
0.163627 0.176544 -0.171190 0.846127 -0.498298 0.009917 
-0.044715 0.283273 0.358489 -0.027685 0.920151 0.389791 
0.358353 -0.227111 0.546372 0.994005 -0.058081 0.091481 
-0.232922 -0.513122 0.636655 -0.178410 -0.301363 -0.907154 
-0.147556 0.146228 -0.174025 -0.875249 -0.405344 -0.246810 
0.317822 -0.464189 -0.108588 0.420896 -0.007462 -0.876927 
-0.206859 -0.028105 0.916978 -0.577071 0.285081 0.761837 
0.018507 0.108635 -0.491619 0.010403 -0.964248 -0.259451 
0.205249 0.731254 -0.174851 0.108620 0.523313 0.840466 
0.421048 0.660212 -0.260850 0.698913 -0.531969 -0.473862 
0.064864 0.105041 -0.395642 0.070727 -0.986589 0.131309 
0.112256 -0.692815 0.818545 -0.735752 -0.613631 0.197385 
0.188554 -0.025453 0.929365 0.534086 0.302458 0.787391 
0.174391 0.662552 -0.480802 0.248737 0.421497 -0.867889 
0.152436 0.623546 -0.502141 0.182405 0.381312 -0.904434 
0.149442 -0.504488 0.922631 -0.272665 -0.023207 0.959893 
-0.113908 -0.616074 -0.025214 0.906558 -0.216332 -0.353771 
0.139771 0.150290 0.810753 0.419544 0.787130 0.446079 
0.058902 0.315227 0.248748 0.045660 0.984293 0.156710 
0.300056 -0.061282 -0.069856 0.764816 0.203921 -0.604164 
-0.112794 -0.446360 0.198889 -0.143006 -0.973797 -0.171719 
0.277367 0.464811 -0.494456 0.811210 0.371668 -0.400255 
0.321552 0.335770 -0.519863 0.942240 0.201758 -0.229802 
0.015601 0.823324 -0.214684 0.076329 0.952103 0.289740 
-0.226380 0.243728 0.132917 -0.752123 0.627042 -0.176236 
-0.208924 0.549004 -0.068774 -0.703717 0.359132 0.598643 
-0.378650 -0.187246 0.093104 -0.990401 0.063798 -0.111507 
0.261886 0.556799 -0.463151 0.878241 0.265437 -0.375284 
-0.358312 -0.344038 0.343905 -0.917291 -0.388343 0.027175 
0.180119 0.655181 -0.123805 0.329893 0.522929 0.777533 
0.043284 0.455064 -0.593278 0.022426 0.555082 -0.831240 
0.170746 0.004723 0.926250 0.472233 0.422817 0.771666 
0.314200 -0.640514 0.133068 0.660472 -0.430171 0.601423 
0.096084 0.126108 -0.311412 0.205522 -0.959176 0.174754 
0.298283 -0.019390 0.801868 0.848251 0.359216 0.382198 
0.064526 -0.521465 0.386931 0.159350 -0.965552 -0.174264 
-0.353567 0.013987 0.176561 -0.925834 0.373735 -0.026427 
-0.234668 -0.623566 0.916734 -0.260987 -0.265812 0.908181 
0.112806 -0.643281 0.711016 -0.761398 -0.311805 -0.549629 
0.140655 0.296452 0.287840 0.302664 0.907636 0.260458 
0.065280 0.296925 0.322501 0.053660 0.941511 0.328801 
0.047086 0.309036 0.283193 0.020444 0.969609 0.236828 
-0.383290 -0.319291 0.038898 -0.997092 0.038431 -0.042159 
0.083837 0.713665 -0.105554 0.515837 0.580381 0.628677 
0.181558 0.222138 0.399165 0.570828 0.730334 0.370029 
-0.093317 -0.606954 0.863060 0.824079 -0.235157 0.469498 
-0.319480 -0.376741 -0.103264 -0.451895 0.057228 -0.859877 
0.154028 -0.496900 0.477892 0.397811 -0.895274 0.177628 
0.143791 0.230342 0.429048 0.398668 0.833356 0.376313 
-0.004536 -0.332629 -0.091478 -0.023806 -0.741913 -0.667690 
0.001521 0.321639 0.206137 0.001531 0.994686 0.098754 
-0.232856 0.089394 0.786953 -0.692405 0.630950 0.341783 
-0.206401 0.042672 0.875705 -0.576740 0.504062 0.638554 
0.300610 0.427284 -0.252496 0.976146 0.142220 0.159279 
-0.320495 -0.018508 0.732454 -0.905069 0.363203 0.211096 
0.148133 0.937597 -0.265175 -0.637316 0.728883 -0.127476 
0.320793 0.238915 -0.514357 0.917090 -0.342444 -0.138846 
0.063578 -0.510704 0.523500 0.155088 -0.942457 0.290843 
0.124917 0.049571 -0.177536 0.661211 0.015405 -0.740451 
0.341774 -0.041597 0.014769 0.906609 0.223436 -0.351757 
-0.237791 0.214022 0.289364 -0.799667 0.554165 0.224273 
-0.321593 -0.218136 0.792529 -0.945206 0.056483 0.309818 
-0.265523 -0.505336 0.918368 -0.376131 -0.002748 0.924607 
0.320079 0.371009 -0.475040 0.952698 0.260125 -0.138136 
-0.129343 -0.661502 -0.020876 0.795054 -0.443198 -0.364058 
0.082957 0.126008 0.878632 0.251833 0.710216 0.653737 
-0.113122 0.186312 0.758541 -0.345145 0.884916 0.306732 
0.358475 -0.254018 0.527289 0.992061 -0.080565 0.094785 
-0.139119 -0.495071 0.509320 -0.352756 -0.893896 0.263909 
-0.209521 0.748452 -0.356169 -0.713643 0.673361 -0.184089 
-0.131903 -0.560200 0.670373 0.558424 -0.198240 -0.774660 
-0.187877 0.238405 0.360404 -0.604040 0.706792 0.367864 
0.376629 -0.279000 0.009847 0.973318 0.084841 -0.170377 
0.124451 -0.579870 0.108558 -0.859802 -0.084539 0.471368 
-0.248062 0.568562 -0.484857 -0.747518 0.301954 -0.564374 
0.238286 0.167101 -0.554235 0.407935 -0.787678 -0.436426 
0.094782 0.816164 -0.339279 0.260596 0.959561 -0.098836 
-0.344679 0.009715 0.330196 -0.907948 0.401447 0.117141 
0.242434 0.202024 0.300945 0.807161 0.543174 0.226980 
-0.355055 -0.175983 -0.020901 -0.920690 0.169858 -0.347088 
-0.033789 0.282023 -0.665277 -0.012435 -0.160424 -0.978429 
0.299099 0.225404 -0.389328 0.825785 -0.497241 0.244632 
0.339058 -0.010950 0.456124 0.919640 0.384069 0.072524 
-0.133024 0.139880 -0.294166 -0.327514 -0.918753 0.190671 
0.195673 0.202324 -0.218416 0.665070 -0.677911 0.288489 
-0.209165 0.146605 0.676157 -0.644775 0.754447 0.109422 
-0.298284 -0.544244 0.896910 -0.660817 -0.094671 0.718798 
-0.300579 -0.115340 -0.083542 -0.716943 0.147051 -0.664321 
0.020163 -0.379429 0.840130 -0.239216 -0.809446 0.512344 
-0.301959 0.442672 -0.432030 -0.950487 0.284117 -0.119991 
0.153024 0.170978 0.748163 0.473187 0.836091 0.271128 
-0.200124 -0.096176 0.932074 -0.520841 0.016282 0.852159 
0.205161 0.310944 -0.085090 0.746182 -0.422107 0.512668 
-0.282194 0.539705 -0.351035 -0.980632 0.176750 -0.068116 
0.104944 -0.672184 0.834761 -0.783265 -0.501631 0.302441 
-0.261500 0.164371 0.315822 -0.828573 0.517140 0.209873 
0.241887 0.198898 0.079438 0.773615 0.544430 -0.318770 
0.357918 -0.215944 0.559547 0.994265 -0.055512 0.090566 
-0.181477 0.899485 -0.323791 0.077206 0.333228 -0.928579 
-0.053721 -0.526067 0.470891 -0.135599 -0.979116 0.148095 
-0.081884 0.053404 0.937962 -0.266084 0.528030 0.805324 
-0.301391 0.118793 0.236738 -0.882519 0.461197 0.086671 
-0.302964 -0.408465 0.481609 -0.536322 -0.842841 0.036598 
-0.128146 -0.493062 0.653380 0.432039 -0.559713 -0.626628 
-0.377975 -0.274448 0.018355 -0.980541 0.080189 -0.143856 
0.246365 0.224613 0.207260 0.831643 0.549514 0.053661 
0.169389 -0.241072 0.935665 0.249092 -0.127960 0.959923 
0.172832 0.149769 -0.098107 0.907225 0.123154 -0.371751 
0.021384 -0.154605 0.979019 0.051925 -0.180014 0.981618 
0.075341 -0.592769 0.787334 -0.972572 -0.172836 -0.074739 
0.281668 0.163348 0.194591 0.881933 0.470129 0.023544 
-0.232499 0.637917 -0.468934 -0.656495 0.380769 -0.638677 
-0.297162 0.350825 -0.574815 -0.801705 0.324600 -0.482860 
0.077259 0.163392 0.830643 0.233044 0.824718 0.509038 
0.330578 0.297780 -0.438553 0.984946 -0.067119 0.043684 
0.281662 -0.379669 0.899534 0.512991 0.086347 0.832817 
0.176451 0.789041 -0.222462 0.530893 0.389408 0.731806 
0.267734 -0.436502 0.594637 0.440665 -0.758112 -0.380536 
-0.075125 -0.530060 0.748548 0.952257 -0.127126 -0.248368 
0.304779 0.579572 -0.165650 0.378085 -0.721954 0.373870 
0.263429 -0.324015 0.904313 0.444272 0.086041 0.889995 
-0.357587 -0.359800 0.221554 -0.881368 -0.406108 0.168495 
-0.065257 0.732807 -0.108225 -0.470490 0.615788 0.627421 
-0.369434 -0.152519 0.054051 -0.973274 0.109961 -0.193354 
0.190155 0.180085 -0.594490 0.216097 -0.717185 -0.649158 
0.147308 0.154097 -0.575632 0.119414 -0.812549 -0.570225 
0.148056 0.129054 -0.528824 0.142108 -0.909701 -0.379991 
-0.272149 0.611745 -0.344696 -0.922901 0.023939 -0.314949 
-0.207058 0.045172 -0.106151 -0.623440 0.347278 -0.695233 
0.228864 0.351046 -0.085481 0.769012 -0.373722 0.514818 
-0.000072 0.226160 0.642799 -0.000213 0.998587 0.050306 
0.321333 -0.412595 0.866338 0.816856 0.063484 0.533022 
-0.107749 -0.503127 0.669760 0.599150 -0.474736 -0.554835 
0.052124 -0.529455 0.417802 0.131586 -0.987904 -0.062777 
-0.027054 0.037952 -0.236780 -0.202648 -0.184075 -0.952705 
0.338157 -0.409856 0.733171 0.984868 -0.066510 -0.127441 
0.110046 0.316213 0.170772 0.200784 0.975833 0.000592 
-0.349952 0.633348 -0.297446 -0.346551 -0.684352 -0.622255 
0.302877 -0.462178 0.655003 0.751863 -0.286778 -0.529387 
-0.059318 0.088745 -0.239913 -0.409183 -0.425432 -0.781177 
-0.165133 -0.606090 0.152880 0.586090 -0.183665 0.762308 
-0.281990 -0.595897 0.677897 -0.647979 -0.267242 -0.692107 
-0.371006 -0.285952 0.369755 -0.984351 -0.147949 0.080319 
0.104722 -0.539803 -0.021200 -0.955291 -0.068763 -0.268460 
-0.075074 0.822011 -0.329034 -0.228258 0.969522 -0.079955 
-0.252629 -0.481308 0.629398 -0.345128 -0.460711 -0.782768 
0.171967 0.165499 0.725014 0.535055 0.814809 0.211171 
0.374273 0.746999 -0.284744 0.149987 0.847543 -0.479169 
-0.216716 0.215366 0.050105 -0.750383 0.546268 -0.371056 
-0.214767 -0.436776 0.305142 -0.423166 -0.890244 -0.137452 
-0.200683 -0.702106 0.691321 -0.015415 -0.710538 -0.686353 
0.147744 -0.277074 -0.125905 0.029191 -0.414553 -0.897835 
-0.302337 0.411903 -0.252140 -0.974095 0.106437 0.177064 
0.300599 -0.009335 0.784763 0.855106 0.391265 0.331413 
0.264337 -0.699358 0.117369 0.309473 -0.743543 0.521585 
-0.286458 -0.526258 0.904699 -0.555768 -0.055560 0.794993 
-0.032472 -0.028424 1.009928 -0.174362 0.649729 0.737343 
0.149844 0.183228 0.706058 0.464681 0.867152 0.165264 
0.016749 -0.305445 0.922503 -0.043261 -0.580150 0.812348 
0.212390 0.250732 -0.163157 0.767975 -0.509167 0.377050 
