0.284928 -0.215796 0.867682 0.770296 0.101583 0.624566 
-0.276950 0.001241 -0.067861 -0.693321 0.367140 -0.616976 
-0.297671 -0.595434 -0.109700 -0.371628 -0.245159 -0.892524 
0.328558 -0.449712 0.855220 0.881129 0.016751 0.417806 
-0.296867 0.195703 -0.506908 -0.769630 -0.609262 -0.112298 
-0.301486 -0.615819 0.871855 -0.769936 -0.303901 0.530784 
0.286763 -0.117036 -0.097294 0.662064 0.124078 -0.724099 
-0.317904 -0.666185 0.106989 -0.691540 -0.540366 0.462621 
0.321491 0.072111 0.270370 0.884361 0.453468 0.104111 
0.268928 -0.055419 0.869838 0.741000 0.198699 0.636265 
0.287042 0.372209 -0.573969 0.746704 0.400649 -0.513922 
0.238638 0.066697 -0.062989 0.660441 0.434321 -0.609916 
0.275256 0.547034 -0.413990 0.964081 0.221818 -0.142135 
0.160267 0.169019 -0.185513 0.808135 -0.566945 -0.010318 
0.122712 0.205698 0.563209 0.359653 0.927950 0.071287 
-0.338804 -0.234242 0.720128 -0.988561 -0.004243 0.148641 
-0.377714 -0.103626 0.118493 -0.984719 0.079373 -0.151141 
0.226209 0.252572 0.178506 0.762786 0.640132 -0.036609 
0.081967 0.203939 0.731477 0.249852 0.935383 0.234716 
0.230671 0.201413 0.337298 0.764297 0.578279 0.278958 
0.339742 0.024269 0.088110 0.904122 0.381223 -0.185324 
0.293773 -0.645848 -0.089586 0.428787 -0.468001 -0.751294 
0.276861 0.523165 -0.207436 0.974836 0.014742 0.189318 
-0.147236 0.645611 -0.095350 -0.490882 0.578699 0.649726 
0.284526 0.054795 0.708711 0.812346 0.556943 0.162901 
0.149272 -0.067496 -0.178084 0.445021 0.088049 -0.890633 
0.135949 0.642135 -0.497292 0.151111 0.391807 -0.906023 
0.348217 -0.043810 0.507348 0.954448 0.290683 0.044665 
-0.197852 -0.547730 0.180279 0.363883 -0.137807 0.912686 
-0.076116 -0.523884 0.434666 -0.185298 -0.975634 0.005209 
0.381603 -0.077979 0.212737 0.983910 0.167457 -0.000752 
0.338882 -0.376115 0.339779 0.750926 -0.649542 -0.019761 
-0.327659 -0.166925 -0.069109 -0.776150 0.161536 -0.599698 
-0.108049 -0.045331 -0.196025 -0.450447 0.029558 -0.889506 
0.342630 -0.153165 0.717384 0.980909 -0.021170 0.191667 
0.269474 0.093835 0.544810 0.773633 0.630615 0.047525 
0.160993 -0.400246 0.920883 -0.111146 -0.018704 0.987425 
-0.365654 -0.479529 0.114378 -0.901135 -0.109179 0.369321 
-0.299332 -0.401186 -0.114544 -0.285145 0.036098 -0.953894 
0.376423 -0.155884 0.375752 0.992563 0.037235 0.110069 
-0.231342 -0.725186 0.770362 -0.316176 -0.901025 -0.111121 
-0.171581 -0.456914 0.552742 -0.450715 -0.859339 0.188120 
0.210852 -0.576562 0.927288 0.068199 -0.114576 0.978591 
0.243357 0.179936 -0.346503 0.629367 -0.711586 0.306460 
0.368577 -0.210616 0.010088 0.958575 0.127185 -0.230706 
-0.171708 0.940273 -0.294208 0.348018 0.725205 -0.559404 
0.031787 0.080161 -0.247076 0.239768 -0.383457 -0.879222 
0.251702 -0.333864 -0.116074 0.068424 -0.015629 -0.986715 
-0.382940 -0.195574 0.311998 -0.996523 -0.027208 0.075480 
-0.285012 -0.592879 0.679062 -0.669644 -0.261379 -0.678302 
-0.231752 0.307154 -0.645301 -0.378754 0.052220 -0.913897 
-0.349936 -0.085355 0.648442 -0.983156 0.136364 0.099936 
0.308107 -0.650991 0.807226 0.866139 -0.439522 0.098053 
-0.080063 0.163572 -0.593317 -0.039945 -0.758927 -0.642690 
-0.244944 0.141639 0.434363 -0.753670 0.625069 0.198094 
-0.363269 -0.188612 0.513544 -0.996122 -0.024354 0.083651 
-0.118160 0.423884 -0.612509 -0.086508 0.576737 -0.811480 
0.033547 -0.188540 -0.197362 0.064089 -0.345756 -0.935006 
-0.306295 0.084797 0.068647 -0.855886 0.446718 -0.256386 
-0.141279 0.122029 -0.168811 -0.849604 -0.230781 -0.430057 
0.331445 -0.614390 0.130146 0.746502 -0.327483 0.564707 
-0.189641 0.034110 0.895977 -0.524670 0.480797 0.700309 
-0.129867 -0.522463 -0.072602 0.745690 -0.061931 -0.651666 
-0.382974 -0.317290 0.067636 -0.998333 -0.000091 0.002997 
0.117052 0.451862 -0.591615 0.093450 0.563965 -0.819515 
-0.043201 0.000884 0.982404 -0.185648 0.579693 0.791476 
-0.305599 0.413995 -0.469832 -0.921797 0.322231 -0.187324 
-0.252884 0.305275 -0.169493 -0.788929 -0.450360 0.415777 
0.382014 -0.517887 0.008372 0.980582 -0.098924 -0.058462 
0.227733 -0.731997 0.038064 0.018556 -0.985332 0.019401 
-0.302613 0.103595 0.287279 -0.868543 0.476082 0.134997 
0.072355 0.317476 0.228892 0.073943 0.988738 0.113871 
0.076657 0.102962 -0.424690 0.074526 -0.993221 0.036667 
0.241387 0.699970 -0.372260 0.780400 0.480567 -0.376163 
0.259571 0.322077 -0.165563 0.818132 -0.396400 0.408227 
-0.177077 0.265538 0.321918 -0.530692 0.770026 0.333621 
-0.188614 -0.198445 0.933241 -0.380055 -0.063474 0.920006 
-0.296889 0.262970 -0.322558 -0.849572 -0.423251 0.300154 
-0.153477 -0.199298 -0.159991 -0.311814 -0.331785 -0.883465 
0.322457 0.359394 -0.357552 0.985531 0.071595 0.099008 
-0.155908 0.588167 -0.515444 -0.193204 0.377633 -0.902790 
0.113818 -0.514292 0.450532 0.271886 -0.953502 0.068761 
0.256534 0.160184 -0.510876 0.539802 -0.802276 -0.192734 
-0.357531 -0.348768 0.247297 -0.876565 -0.452240 0.079143 
0.228566 0.470340 -0.050844 0.810212 0.157554 0.547438 
0.002480 0.657978 -0.015230 0.018159 0.548361 0.831271 
-0.274054 0.569222 -0.373256 -0.977546 0.165879 -0.116713 
-0.200043 0.778827 -0.237644 -0.814509 0.368866 0.332626 
-0.253727 0.458156 -0.100796 -0.887537 0.126708 0.413569 
0.022329 -0.490254 0.588920 0.055248 -0.924741 0.373529 
0.220730 0.923927 -0.289749 0.820342 0.396538 -0.287810 
-0.063395 -0.379866 -0.019660 0.098950 -0.794665 -0.550601 
0.073277 0.105737 0.901344 0.228085 0.649096 0.721628 
0.090190 -0.349233 -0.069673 -0.287583 -0.595447 -0.715387 
-0.141114 -0.655803 0.892105 0.486535 -0.417374 0.738282 
0.420213 0.725372 -0.286341 0.599572 0.313115 -0.691398 
-0.305515 0.619663 -0.139209 -0.201672 -0.123430 0.938158 
0.092456 0.792270 -0.408076 0.182784 0.800411 -0.563180 
0.106893 0.809772 -0.213476 0.005843 0.715450 0.667155 
0.132513 -0.703818 0.833657 -0.564915 -0.714398 0.312481 
-0.203708 0.185575 -0.008924 -0.783158 0.445025 -0.426142 
-0.310858 -0.449586 0.887311 -0.723514 0.039745 0.680560 
-0.245177 0.226564 0.174753 -0.822238 0.562296 -0.039981 
-0.334440 0.720742 -0.320120 -0.147714 0.535211 -0.787299 
-0.152561 -0.701589 0.063671 0.615418 -0.705622 0.197054 
0.155448 -0.619226 0.142297 -0.658489 -0.215127 0.698040 
0.241993 -0.487527 0.199228 -0.036430 -0.319712 0.899442 
0.104987 0.289026 -0.664746 0.061465 -0.121410 -0.982547 
-0.306925 -0.116010 0.825034 -0.879154 0.046776 0.469817 
-0.090560 -0.619646 0.739859 0.897235 -0.241373 -0.349986 
-0.194283 -0.457947 0.329923 -0.541020 -0.797583 -0.260852 
-0.119772 0.205895 0.582979 -0.354059 0.931713 0.051442 
-0.159228 0.362167 -0.005303 -0.557333 -0.283299 0.770013 
0.057006 -0.450573 0.770386 -0.848195 -0.461105 0.048708 
-0.141299 0.111881 -0.420538 -0.204716 -0.968528 0.084102 
-0.103395 0.763315 -0.436737 -0.166543 0.648190 -0.734017 
0.139674 -0.510553 -0.081313 -0.669243 -0.051734 -0.722815 
-0.150786 -0.376771 0.921115 0.113184 -0.060769 0.987455 
-0.349773 -0.022614 0.391945 -0.931059 0.343171 0.109596 
0.310716 -0.520627 0.691197 0.817947 -0.176457 -0.509129 
0.219120 -0.444944 0.574651 0.180697 -0.923463 -0.284370 
-0.021495 0.245738 0.448885 -0.031876 0.945690 0.320961 
0.353096 -0.279177 0.563012 0.990278 -0.100713 0.093118 
0.148573 -0.575710 0.660698 -0.443099 -0.194150 -0.864762 
0.004676 0.369239 0.040934 0.011069 -0.068746 0.975997 
0.133021 -0.213190 0.949130 0.230946 -0.169301 0.957296 
0.187399 0.678983 -0.144784 0.229002 0.499686 0.831724 
-0.324537 -0.392941 0.627995 -0.902925 -0.337576 -0.189476 
-0.094368 0.182235 0.784360 -0.286082 0.876011 0.379187 
-0.332295 -0.385215 0.456458 -0.779811 -0.621130 0.052141 
-0.115569 0.531305 0.018582 -0.411401 0.378002 0.821307 
-0.289207 0.036358 0.741405 -0.824758 0.514850 0.224414 
0.091539 -0.432360 0.096077 -0.203240 -0.949149 -0.138440 
0.383711 -0.243328 0.211705 0.996926 -0.074755 0.009106 
-0.303566 0.046257 0.558005 -0.842721 0.534906 0.038317 
0.168514 0.254129 -0.027770 0.959076 0.258525 0.004354 
0.124355 -0.051894 0.969750 0.389437 -0.021606 0.918617 
0.017958 -0.499502 0.301218 0.046888 -0.927838 -0.365515 
0.380438 -0.356554 0.089366 0.989230 -0.041360 0.114094 
0.082696 0.151895 -0.579691 0.044082 -0.808573 -0.586087 
-0.454314 0.734248 -0.188100 -0.547092 0.683562 0.399209 
-0.039247 0.830718 -0.301108 -0.155815 0.986278 -0.024847 
